0.00 0.00 102.00
0.00 92.36 102.00
0.00 184.73 102.00
0.00 277.09 102.00
0.00 369.45 102.00
0.00 461.82 102.00
0.00 554.18 102.00
0.00 646.55 102.00
0.00 738.91 102.00
0.00 831.27 102.00
0.00 923.64 102.00
0.00 1016.00 102.00
92.36 0.00 102.00
92.36 92.36 102.00
92.36 184.73 102.00
92.36 277.09 109.19
92.36 369.45 116.86
92.36 461.82 120.69
92.36 554.18 120.69
92.36 646.55 116.86
92.36 738.91 109.19
92.36 831.27 102.00
92.36 923.64 102.00
92.36 1016.00 102.00
184.73 0.00 102.00
184.73 92.36 102.00
184.73 184.73 113.02
184.73 277.09 124.53
184.73 369.45 132.20
184.73 461.82 136.03
184.73 554.18 136.03
184.73 646.55 132.20
184.73 738.91 124.53
184.73 831.27 113.02
184.73 923.64 102.00
184.73 1016.00 102.00
277.09 0.00 102.00
277.09 92.36 109.19
277.09 184.73 124.53
277.09 277.09 136.03
277.09 369.45 143.70
277.09 461.82 147.54
277.09 554.18 147.54
277.09 646.55 143.70
277.09 738.91 136.03
277.09 831.27 124.53
277.09 923.64 109.19
277.09 1016.00 102.00
369.45 0.00 102.00
369.45 92.36 116.86
369.45 184.73 132.20
369.45 277.09 143.70
369.45 369.45 151.37
369.45 461.82 155.21
369.45 554.18 155.21
369.45 646.55 151.37
369.45 738.91 143.70
369.45 831.27 132.20
369.45 923.64 116.86
369.45 1016.00 102.00
461.82 0.00 102.00
461.82 92.36 120.69
461.82 184.73 136.03
461.82 277.09 147.54
461.82 369.45 155.21
461.82 461.82 159.04
461.82 554.18 159.04
461.82 646.55 155.21
461.82 738.91 147.54
461.82 831.27 136.03
461.82 923.64 120.69
461.82 1016.00 102.00
554.18 0.00 102.00
554.18 92.36 120.69
554.18 184.73 136.03
554.18 277.09 147.54
554.18 369.45 155.21
554.18 461.82 159.04
554.18 554.18 159.04
554.18 646.55 155.21
554.18 738.91 147.54
554.18 831.27 136.03
554.18 923.64 120.69
554.18 1016.00 102.00
646.55 0.00 102.00
646.55 92.36 116.86
646.55 184.73 132.20
646.55 277.09 143.70
646.55 369.45 151.37
646.55 461.82 155.21
646.55 554.18 155.21
646.55 646.55 151.37
646.55 738.91 143.70
646.55 831.27 132.20
646.55 923.64 116.86
646.55 1016.00 102.00
738.91 0.00 102.00
738.91 92.36 109.19
738.91 184.73 124.53
738.91 277.09 136.03
738.91 369.45 143.70
738.91 461.82 147.54
738.91 554.18 147.54
738.91 646.55 143.70
738.91 738.91 136.03
738.91 831.27 124.53
738.91 923.64 109.19
738.91 1016.00 102.00
831.27 0.00 102.00
831.27 92.36 102.00
831.27 184.73 113.02
831.27 277.09 124.53
831.27 369.45 132.20
831.27 461.82 136.03
831.27 554.18 136.03
831.27 646.55 132.20
831.27 738.91 124.53
831.27 831.27 113.02
831.27 923.64 102.00
831.27 1016.00 102.00
923.64 0.00 102.00
923.64 92.36 102.00
923.64 184.73 102.00
923.64 277.09 109.19
923.64 369.45 116.86
923.64 461.82 120.69
923.64 554.18 120.69
923.64 646.55 116.86
923.64 738.91 109.19
923.64 831.27 102.00
923.64 923.64 102.00
923.64 1016.00 102.00
1016.00 0.00 102.00
1016.00 92.36 102.00
1016.00 184.73 102.00
1016.00 277.09 102.00
1016.00 369.45 102.00
1016.00 461.82 102.00
1016.00 554.18 102.00
1016.00 646.55 102.00
1016.00 738.91 102.00
1016.00 831.27 102.00
1016.00 923.64 102.00
1016.00 1016.00 102.00
